102
0
2.0	0.7	3.0	3.0	0	0
0.9	0.2	5.163501458387714	1.2502097468960292	-1.5934661824286294	-0.33650474510532885
0.9	0.2	3.423827281932369	1.7957288783437257	-0.5251996779595417	-0.9353593658555017
0.9	0.2	0.7095868880892346	5.748482001552669	1.5851880939597827	-0.8077208154441602
0.9	0.2	5.417083267418107	2.7868831062988617	-0.9131625127682312	-0.36448960324278035
0.9	0.2	1.1077953498536413	5.79922103851828	-1.2015651018119455	1.4338620343325625
0.9	0.2	5.471565152216418	4.249521321475266	-1.0308636290101556	1.1197888795251865
0.9	0.2	1.8586169923769353	0.6802855508830847	0.48349608802377786	0.21241320876560243
0.9	0.2	0.8144529600245234	2.4882552605175414	0.696223304850814	-1.668531544888086
0.9	0.2	5.562270809266746	2.0783806363608077	-0.9246691965311667	-1.452138519234396
0.9	0.2	2.257304860123294	1.1625437671342713	0.29582806259306	1.814231581184904
0.9	0.2	4.610789928885385	1.5281418668600664	0.2045844955285573	1.4954461400566357
0.9	0.2	3.557368875787494	1.3198420443827032	1.0225458048994231	0.3263811982260581
0.9	0.2	2.881811878879711	1.385487855879179	-1.2394784866413793	-0.3126338577190326
0.9	0.2	5.712958675820516	0.7733347106032464	1.7351091716593394	-0.5531409357827426
0.9	0.2	4.69040375247009	4.260567890437576	0.6670094098132409	-1.4498340732749835
0.9	0.2	2.6428821561378983	5.720396081528563	0.11957523838491235	-1.675598759327903
0.9	0.2	5.674223429374482	1.391924436488809	0.6770713969941868	-1.6245944652491267
0.9	0.2	0.8105787475168373	3.8481156727314367	0.17555338146886343	1.0987570483782239
0.9	0.2	4.292206473210491	1.84960714914437	-0.9554297726701605	1.3313049166347433
0.9	0.2	1.4976282017558842	1.3122944398305125	0.9683661090239273	-1.4894412973483948
0.9	0.2	2.4176437931425485	5.304832169290466	-0.5730201044814949	0.4910797060143455
0.9	0.2	4.770672006097736	0.47537471179549584	-0.3164546226509866	-0.10021747107064802
0.9	0.2	3.7017267817547994	3.838022513856271	-1.1814906147617075	-0.7867955379300428
0.9	0.2	5.193510205549189	5.331297277876624	0.42575268941502575	-1.0725750873659887
0.9	0.2	1.3045555204317036	0.3405102508010478	0.17612462970560802	-1.2455103943473897
0.9	0.2	0.6406998577757617	4.278064062257334	0.6414030360264344	-0.024865015152721822
0.9	0.2	1.798271453507063	5.204723424963651	0.06606885149127843	1.8945903728244824
0.9	0.2	2.6876571239498404	0.3031919782711787	1.6869647179447702	-0.6175131369140586
0.9	0.2	4.508526680963649	2.8236700282178253	-0.4219834632016323	1.9388526042014245
0.9	0.2	3.8531870335114218	0.5792989560680839	-1.6070790724513384	-0.8387460509753264
0.9	0.2	1.0715890960017156	4.7205681468758485	1.8503553776041481	0.009391648075892522
0.9	0.2	0.31125374884445356	4.879006715354193	0.11127587254377018	0.9441060848111871
0.9	0.2	4.109153938320366	4.918302434149263	0.6549398525872895	-0.6058991160440879
0.9	0.2	2.2695368955968576	4.726711616435703	-0.890791707443038	-1.6805955778870485
0.9	0.2	0.5427615609432219	1.1965979486113458	0.24798048352339566	-1.5613955710619647
0.9	0.2	0.2992112655562822	5.729022399704237	-0.276420585940858	0.705185041473548
0.9	0.2	4.506361916971313	3.498003811976788	0.4382950909679478	0.7212592326110602
0.9	0.2	1.4958108290047767	2.298830442860411	-1.9489282646431576	-0.4227926735787229
0.9	0.2	2.079572991471156	3.9300490603874314	-1.431800015169887	-0.11581390334914543
0.9	0.2	3.044077400602241	5.307761925839267	1.27469938876878	1.4660452495234921
0.9	0.2	4.790970561059768	5.700618058316708	-1.2227576895163452	-1.2241002741413676
0.9	0.2	1.6839130354405174	3.2689753898780864	-1.3898125990481218	0.6146727264780086
0.9	0.2	5.790925410350729	5.12804817018619	0.6970386961377061	0.19967785880634842
0.9	0.2	1.172524028397667	3.5681343010945277	1.2577864339900906	-1.279903815959845
0.9	0.2	4.928803122456786	1.8786710240545985	-1.7711998463396603	-0.01492983772843929
0.9	0.2	0.9153955052851628	1.4424877210358702	0.23991452851458217	0.8581482830860889
0.9	0.2	2.279777901477619	2.3826466743727632	0.06860912341803228	1.212630420172767
0.9	0.2	4.63461432018669	4.993106658100047	1.745133142423166	0.5833515226377826
0.9	0.2	1.0423444373460407	2.833281091797761	-0.1455175135753883	-1.0763714064718375
0.9	0.2	3.8460761217616475	1.9876900545474587	0.25539639668609887	-1.8974762881236111
0.9	0.2	2.458388686410647	4.2927099276089	1.3467001765157955	-1.468444260171835
0.9	0.2	0.36665400649739244	1.8684939573903188	-1.5916219143522385	-0.3479583878404458
0.9	0.2	4.029328441734256	2.8231057587116046	-0.8876596272609051	-0.22820786291397702
0.9	0.2	4.35272756345714	0.40454508481318885	1.1629010427450455	1.4405393232222594
0.9	0.2	0.21119030284437357	0.29528773418464604	-0.6379974544444503	-0.3506490043397596
0.9	0.2	4.225920758250817	5.659336420947794	0.37506481677255693	-1.6012569817110645
0.9	0.2	3.1966110077412058	4.808546739042936	-0.8847614853485695	-1.277983876217448
0.9	0.2	1.2998466246517808	5.091189154061402	-1.7875771043777748	-0.42321640627452217
0.9	0.2	3.173703754908784	4.099263786918892	-0.8829887027768054	0.7357898782163323
0.9	0.2	3.5181477566752175	5.134802959069667	-0.7711670662623052	-1.2139446852335294
0.9	0.2	5.705715665160072	3.4017763147155504	0.8117748622554841	-1.550379027191121
0.9	0.2	1.2749569239560516	4.329954913587628	-1.0682785555404513	-0.6639884132349801
0.9	0.2	0.3907852348483676	3.2305860073650656	-0.3748536659730294	1.1753161787820559
0.9	0.2	1.313406437310879	0.8845817781017922	0.7909291649971234	-0.1036882558578804
0.9	0.2	4.050127360750007	1.460398481394928	-0.5361144096108215	-1.6301795511603283
0.9	0.2	1.4842764975110907	4.70681660699665	-0.3297019348107564	-1.7714585756671706
0.9	0.2	4.881367905102633	3.078478421074661	0.5939827816526012	1.2726564134187088
0.9	0.2	2.113450338646983	3.459362010259769	1.2798416479290025	-1.5140816115333926
0.9	0.2	3.3141591956251	0.9590282270884463	-1.3683835566984222	-1.2055294560264254
0.9	0.2	2.258848246654016	0.30894523164252474	0.0034431483241648547	-0.48271309516144817
0.9	0.2	1.7049193643980265	3.700426785998892	0.20701101888229798	0.15606592287292056
0.9	0.2	4.621648849849289	2.3389349425016044	-0.14821097468165845	-1.4221569562468048
0.9	0.2	5.292634920840367	3.231563433347736	-1.9391660960642696	0.4795421571920234
0.9	0.2	5.255400806687315	3.6947594622090705	-0.676814343015813	-1.318508467069773
0.9	0.2	1.8823210580214438	4.499229368038492	-1.927726756751503	-0.3450767073736348
0.9	0.2	1.9101275763920846	5.63425075897771	-1.0465390746682588	0.5833225508838293
0.9	0.2	3.9595783502173028	3.307066244303165	-0.6291384996724446	-0.23458113614765183
0.9	0.2	0.8234560127724109	0.4829197474451985	-1.4137915391754803	-0.8646433106523954
0.9	0.2	2.901918698807554	0.9655829404748058	-0.9315487324373962	0.37955812980898396
0.9	0.2	4.243206583925776	4.143556157409925	0.842909381348477	-1.8075854323814322
0.9	0.2	0.9613634062409038	1.9324356610495457	0.6276884379954245	-0.8319384142460263
0.9	0.2	5.380070408785918	4.924753150745433	0.8754029685537635	-0.49349510867973506
0.9	0.2	0.46283427398114885	0.7162039805934086	-0.6457292980055785	-1.2703666260707542
0.9	0.2	2.4829636520864335	0.7974698121422992	1.6944539412482178	0.4985564709026223
0.9	0.2	1.512736893036222	1.7371356605257229	-0.6741201281389932	-1.5364979951252062
0.9	0.2	4.966773310221043	4.684364981730224	-1.7774899166731732	0.4838132344332581
0.9	0.2	3.6800621175979384	4.449621994264271	-1.106947448227885	-0.33522372905080083
0.9	0.2	0.5511806459951025	2.8543464288023657	-1.5398634633544763	-0.3627934239986126
0.9	0.2	0.3122916738475414	3.6759279170015944	-1.4052424300911306	-0.6022391814631618
0.9	0.2	4.737817816973507	1.1287695240616646	-0.22179887451031766	0.6835521343464486
0.9	0.2	2.6792210454799994	2.1162611171911334	-0.9273787910821301	0.5152477149116473
0.9	0.2	2.077091113831485	1.8801559821788774	-1.3604486372958136	-1.1111225804744769
0.9	0.2	0.34106601104758716	5.279407353010525	-0.5074447451990763	-1.8035518313142274
0.9	0.2	5.670181176771019	5.7581629173519175	0.22774132364822555	-1.7115816153498549
0.9	0.2	3.6001071237187827	5.612651208193207	-0.9945435846973135	1.6276158075059148
0.9	0.2	3.851460693615376	2.4117660466394906	-1.1379367805382616	0.4616300226413904
0.9	0.2	3.437716840277287	0.5342133938403733	-0.9158414040687024	-0.769825720559664
0.9	0.2	2.0909395084033418	3.0531665891072333	-1.6198410985972518	-0.273978810641159
0.9	0.2	0.7100506218464431	5.059387357110525	-1.2026825345809602	0.985478113200948
0.9	0.2	5.6948571302067	0.35458941793813215	-0.057424120028771536	-0.8845859532775561
0.9	0.2	5.799005803161458	2.9256728524592974	-1.3085147545456524	-1.1970864126887042
