102
0
2.0	0.7	3.0	3.0	0	0
0.9	0.2	5.377238005254895	3.2942278369469715	-0.42579895056853306	-1.4971653369593998
0.9	0.2	5.661968057416638	4.973051949543975	-1.109774679606872	-0.14843372527973647
0.9	0.2	4.170573135878384	1.8932506744139463	-0.5812613666646608	1.0662834743310095
0.9	0.2	4.105937536115538	5.416921791288651	-0.48915411708083417	1.119614513690338
0.9	0.2	5.0225733125123195	1.077191511228864	-1.3311454152320787	-1.186113577053435
0.9	0.2	0.6342576264203996	0.3687408588719605	0.22338518346601066	0.35945307270336485
0.9	0.2	1.0482737088187444	4.389577146001386	0.703075454287408	1.3758900926545614
0.9	0.2	4.142568886043529	3.3819988784895094	-0.40920196467598957	0.5243422785607309
0.9	0.2	5.3352249728381755	4.5702034043448005	0.14577428148408467	1.5903379918667242
0.9	0.2	4.1734667453828385	4.400777441505887	1.348551964374952	-1.0034651765235147
0.9	0.2	5.320384587740346	1.9878639549241295	-0.3026262016044189	1.8576600835211095
0.9	0.2	1.188376838700464	5.156173791517864	0.2960733836586073	-0.8319205575835218
0.9	0.2	2.485337516536897	5.776774020917393	-0.5792752119328096	-0.5357932250400548
0.9	0.2	2.57415099005849	4.954521769999368	0.22563031133705852	-1.246663462729143
0.9	0.2	4.264967159924188	2.3650262586374384	0.4795098275642126	-1.4923911232562
0.9	0.2	5.07088047388555	2.7507871807660536	-1.2894267324900994	1.1910025198682246
0.9	0.2	1.4156579738263548	0.8385944593940788	-0.8891045078991324	-1.7059668245238735
0.9	0.2	1.966067562997885	2.708643504617533	0.4966778084904971	-0.8400743239940499
0.9	0.2	2.4627300812875035	3.928012726809788	0.2516895360625485	1.1798614967894752
0.9	0.2	1.2955844429969994	3.7941205092089283	-1.436387117066873	-0.4901562151015021
0.9	0.2	1.8619043980235142	0.7583739894935424	-1.0576183680556823	-0.17351373800351966
0.9	0.2	3.31719992364945	1.7532269327439185	-0.5686757384784605	-1.2054461505226992
0.9	0.2	3.56392001451816	3.72689386232045	0.04240060897814631	-1.6978501652470508
0.9	0.2	2.952560319084993	4.553203373515204	0.07480435103957382	0.3216365973888415
0.9	0.2	2.2229468683190814	1.6513548023138975	0.22878396488798777	0.5937785750371671
0.9	0.2	2.6545860094768203	5.36973799881548	-0.3788293121308762	-1.3870205296466944
0.9	0.2	0.229931473553594	4.726080025919716	-0.7068051268112074	-1.040663718075843
0.9	0.2	1.890754976137121	3.3632636421307716	-0.04992808907921026	-1.6777271643630052
0.9	0.2	3.5808892452855496	4.154296094622518	0.2393583501637303	1.4935137141612203
0.9	0.2	0.5146707986634638	3.1446317668866772	0.748098963108046	0.2750879954513629
0.9	0.2	4.449399995342878	4.703442315853977	0.3877528262146399	-1.9443932151043617
0.9	0.2	5.090385641685852	0.36194249515481647	-1.4483085556630115	-0.1084342467002415
0.9	0.2	1.5182768598504035	5.726131560560432	0.6740896812269519	-1.3265746390584567
0.9	0.2	0.666014324742704	1.9759065125460427	-1.1714475605050807	1.4817767515631568
0.9	0.2	3.5925947070292175	5.08161437506181	1.1671206726947452	-0.09313248150821801
0.9	0.2	5.331981139940947	1.434850275153365	-0.46612215175280003	-1.458865481445233
0.9	0.2	1.8305957695596229	4.1104803697432	-0.5038869306805567	0.5236260743043264
0.9	0.2	1.442249005983906	1.5238739434407265	-0.35902518834932845	1.2299746756276564
0.9	0.2	4.4876321688115395	2.863945834532788	-0.916317711581702	-1.4411793572251366
0.9	0.2	3.469458177509609	0.7290376395093616	1.4811839698754639	0.6271429700273877
0.9	0.2	4.868798247302758	1.749109835974091	1.6928056919825216	0.7014330441493102
0.9	0.2	1.6119990977082697	0.22025353345788834	-0.1442622969965043	1.349883842115199
0.9	0.2	4.288585864238351	0.8529867116959615	-1.070830424927859	0.356207488138094
0.9	0.2	3.4158582216332354	5.786148578804789	1.0912445420133765	0.08125381485566474
0.9	0.2	5.22753109020276	5.149515146119265	1.4565143974426051	0.35661708680273896
0.9	0.2	1.7614503513068178	1.9685149655681071	-0.30736141649931364	1.578494325613328
0.9	0.2	4.729374491531402	4.288600365756906	1.0617602452507195	-0.11004629574327658
0.9	0.2	5.533104233043543	5.6895918925037074	-0.8254852377496203	1.0806297980698596
0.9	0.2	0.40380519730823994	5.141260894120212	0.22781418959607225	0.4731880237879455
0.9	0.2	0.807426053676823	0.7861704506495515	0.9900911313565046	0.07907737846457437
0.9	0.2	2.1490628685593522	2.20434225717229	-1.7318897761033312	-0.755459927919086
0.9	0.2	2.044924056720763	4.833372888455092	-0.2466046803530975	-0.14196257621803018
0.9	0.2	1.2154769217073178	3.167095779438889	-1.9097707223075113	0.16883016036272744
0.9	0.2	0.5318301326437016	2.4487076154400333	1.4510045856509386	-1.2672599493477865
0.9	0.2	0.20474525703590896	4.136993831599857	-1.1147270394336606	0.17301206861058457
0.9	0.2	0.40207925839374115	1.6445291722041424	0.11081438738732506	-0.590546646781482
0.9	0.2	5.528205967663027	0.9213079876968844	0.6748744159361393	0.483866578583947
0.9	0.2	2.3680049543444905	0.8347223959955954	0.5595614263156732	-1.6552768571245107
0.9	0.2	4.609817715056247	5.5428012357919005	-0.7470871519855518	-0.9700662985949159
0.9	0.2	3.6865560971463323	4.574249650976992	-0.5982042126102517	-1.7122549032401124
0.9	0.2	5.585864796339044	2.4703213624961293	0.2650199690964853	-0.4199426487591561
0.9	0.2	4.293470236930435	3.833590142149504	-1.037255889476175	0.20614193845989115
0.9	0.2	4.134984606628325	0.3316943069736704	1.39663102716068	0.2339298601441248
0.9	0.2	4.977325663909944	2.2722816991472636	-1.5575697819418768	0.04178689874863604
0.9	0.2	4.695546760952949	1.3185800858826495	-0.9236507132087907	0.2280873934542268
0.9	0.2	0.9380593979279681	2.29019832970998	1.8011869219393255	0.5318092833744946
0.9	0.2	5.741523644404642	3.564938897133457	1.3756749276942373	0.5049359241048866
0.9	0.2	5.620078490341629	4.151318068271828	-0.9427187540415497	-0.6860883926624767
0.9	0.2	5.592111750923762	2.8727191445598477	1.2267705547973522	1.4668549307707028
0.9	0.2	2.2161631268517494	4.300158082600095	0.14800380434570573	0.9192894450014024
0.9	0.2	0.6259766816680703	4.172848232574844	-0.15303863137879717	0.7811057498052857
0.9	0.2	0.37522255164143625	3.7612976766793675	1.0091626726523597	-0.13208086393806032
0.9	0.2	4.9411823737339535	3.7914840358450457	0.9025555348912354	1.4723535106338612
0.9	0.2	2.954053052191136	5.732767451484172	-0.7463722778904206	0.6775895918979862
0.9	0.2	2.1701476343148105	5.265213375697394	0.48752838085272393	0.4277411034452626
0.9	0.2	1.7950988868622941	1.2731259286392027	-1.6620193330730098	0.3580358214890744
0.9	0.2	1.1548034259773978	1.8045208378726465	0.012106503404691561	-0.13935313935785068
0.9	0.2	0.25030729192321766	2.7538716245262007	-0.665594757039724	-1.6560471085486157
0.9	0.2	0.26203553762457954	0.872719402157182	-1.3844867217753507	-0.9827333608852852
0.9	0.2	3.379992540445441	1.2749578992049566	-0.5099778367108516	-1.0245289432012077
0.9	0.2	0.8147037395680781	1.298892875386467	1.3635931279974118	-0.8092250299574807
0.9	0.2	2.5931976405856094	0.2818324915150068	0.41835292825176956	0.9487671073438863
0.9	0.2	4.979163062253914	4.818236014105077	0.35735409123689693	1.3292840548627982
0.9	0.2	3.9113339036381634	1.2223184024989147	-0.6920145647487143	-0.03817539240984606
0.9	0.2	3.0695076010387075	0.35600655182857244	0.3323311178235755	-1.3323301817869833
0.9	0.2	5.730195654397181	0.21100257507004194	-0.47530012063813887	0.16068991832333007
0.9	0.2	1.4388575787283726	4.81319255723492	-0.8910525803427121	-0.5582270481221757
0.9	0.2	2.076687132880389	5.794775708166074	0.9896965031139439	-1.5173419644578285
0.9	0.2	3.1963760064560947	4.983706205090535	-0.22488288323851982	1.7407264155794744
0.9	0.2	3.1748482921367716	4.138979627594278	-0.08364184070198752	1.561604100650644
0.9	0.2	2.7332913049653786	1.375742844945683	1.3550903123809361	-1.3135180982645005
0.9	0.2	1.3082275833601111	2.7006591832697953	0.3883025326113508	-0.48707420122253575
0.9	0.2	3.6939836275217117	2.1135498703124806	-1.0653601813425493	-0.972643442857833
0.9	0.2	2.581269044150523	1.892465990653563	0.30212163269742326	1.44462790993166
0.9	0.2	0.8319047888770952	2.8310427005842866	0.43291040705394374	-0.45683493137082565
0.9	0.2	0.7321865384087762	5.500555793517434	-1.0182315492669078	-1.180351432109878
0.9	0.2	4.760624069132147	3.2956765522474036	-1.3088508744952885	0.2986387598408662
0.9	0.2	0.8182216624259069	3.6982126878513	0.5855304602665854	1.3592205546597862
0.9	0.2	1.633326988743987	5.330898569338723	0.642070490751327	-0.3317985438833712
0.9	0.2	1.250682984905301	0.4572386804633892	0.19334292367846964	-0.5073244155390391
0.9	0.2	4.014836204863394	2.705235170307886	1.4731322960621784	-0.4883479401123245
